0.000000 0.850651 0.525731 -0.000000 0.850652 0.525730 
0.000000 0.850651 -0.525731 0.000000 0.850652 -0.525730 
0.000000 -0.850651 0.525731 0.000000 -0.850652 0.525730 
0.000000 -0.850651 -0.525731 -0.000000 -0.850652 -0.525730 
0.850651 0.525731 0.000000 0.850652 0.525730 -0.000000 
0.850651 -0.525731 0.000000 0.850652 -0.525730 0.000000 
-0.850651 0.525731 0.000000 -0.850652 0.525730 0.000000 
-0.850651 -0.525731 0.000000 -0.850652 -0.525730 -0.000000 
0.525731 0.000000 0.850651 0.525730 -0.000000 0.850652 
-0.525731 0.000000 0.850651 -0.525730 0.000000 0.850652 
0.525731 0.000000 -0.850651 0.525730 0.000000 -0.850652 
-0.525731 0.000000 -0.850651 -0.525730 -0.000000 -0.850652 
0.000000 1.000000 0.000000 0.000000 1.000000 0.000000 
0.500000 0.809017 0.309017 0.500001 0.809017 0.309016 
0.500000 0.809017 -0.309017 0.500001 0.809017 -0.309016 
-0.500000 0.809017 -0.309017 -0.500001 0.809017 -0.309016 
-0.500000 0.809017 0.309017 -0.500001 0.809017 0.309016 
0.000000 -1.000000 0.000000 0.000000 -1.000000 0.000000 
0.500000 -0.809017 -0.309017 0.500001 -0.809017 -0.309016 
0.500000 -0.809017 0.309017 0.500001 -0.809017 0.309016 
-0.500000 -0.809017 0.309017 -0.500001 -0.809017 0.309016 
-0.500000 -0.809017 -0.309017 -0.500001 -0.809017 -0.309016 
1.000000 0.000000 0.000000 1.000000 0.000000 -0.000000 
0.809017 -0.309017 -0.500000 0.809017 -0.309016 -0.500001 
0.809017 0.309017 -0.500000 0.809017 0.309016 -0.500001 
0.809017 0.309017 0.500000 0.809017 0.309016 0.500001 
0.809017 -0.309017 0.500000 0.809017 -0.309016 0.500001 
-1.000000 0.000000 0.000000 -1.000000 0.000000 0.000000 
-0.809017 -0.309017 0.500000 -0.809017 -0.309016 0.500001 
-0.809017 0.309017 0.500000 -0.809017 0.309016 0.500001 
-0.809017 0.309017 -0.500000 -0.809017 0.309016 -0.500001 
-0.809017 -0.309017 -0.500000 -0.809017 -0.309016 -0.500001 
0.000000 0.000000 1.000000 0.000000 -0.000000 1.000000 
-0.309017 -0.500000 0.809017 -0.309016 -0.500001 0.809017 
0.309017 -0.500000 0.809017 0.309016 -0.500001 0.809017 
0.309017 0.500000 0.809017 0.309016 0.500001 0.809017 
-0.309017 0.500000 0.809017 -0.309016 0.500001 0.809017 
0.000000 0.000000 -1.000000 0.000000 0.000000 -1.000000 
-0.309017 0.500000 -0.809017 -0.309016 0.500001 -0.809017 
0.309017 0.500000 -0.809017 0.309016 0.500001 -0.809017 
0.309017 -0.500000 -0.809017 0.309016 -0.500001 -0.809017 
-0.309017 -0.500000 -0.809017 -0.309016 -0.500001 -0.809017 
0.262866 0.951057 0.162460 0.265600 0.951044 0.158025 
0.525731 0.850651 0.000000 0.521294 0.853377 0.000000 
0.262866 0.951057 -0.162460 0.265600 0.951044 -0.158025 
-0.262866 0.951057 -0.162460 -0.265600 0.951044 -0.158025 
-0.525731 0.850651 0.000000 -0.521294 0.853377 -0.000000 
-0.262866 0.951057 0.162460 -0.265600 0.951044 0.158025 
0.262866 -0.951057 -0.162460 0.265600 -0.951044 -0.158025 
0.525731 -0.850651 0.000000 0.521294 -0.853377 -0.000000 
0.262866 -0.951057 0.162460 0.265600 -0.951044 0.158025 
-0.262866 -0.951057 0.162460 -0.265600 -0.951044 0.158025 
-0.525731 -0.850651 0.000000 -0.521294 -0.853377 0.000000 
-0.262866 -0.951057 -0.162460 -0.265600 -0.951044 -0.158025 
0.951057 -0.162460 -0.262866 0.951044 -0.158025 -0.265600 
0.850651 0.000000 -0.525731 0.853377 -0.000000 -0.521294 
0.951057 0.162460 -0.262866 0.951044 0.158025 -0.265600 
0.951057 0.162460 0.262866 0.951044 0.158025 0.265600 
0.850651 0.000000 0.525731 0.853377 0.000000 0.521294 
0.951057 -0.162460 0.262866 0.951044 -0.158025 0.265600 
-0.951057 -0.162460 0.262866 -0.951044 -0.158025 0.265600 
-0.850651 0.000000 0.525731 -0.853377 -0.000000 0.521294 
-0.951057 0.162460 0.262866 -0.951044 0.158025 0.265600 
-0.951057 0.162460 -0.262866 -0.951044 0.158025 -0.265600 
-0.850651 0.000000 -0.525731 -0.853377 0.000000 -0.521294 
-0.951057 -0.162460 -0.262866 -0.951044 -0.158025 -0.265600 
-0.162460 -0.262866 0.951057 -0.158025 -0.265600 0.951044 
0.000000 -0.525731 0.850651 -0.000000 -0.521294 0.853377 
0.162460 -0.262866 0.951057 0.158025 -0.265600 0.951044 
0.162460 0.262866 0.951057 0.158025 0.265600 0.951044 
0.000000 0.525731 0.850651 0.000000 0.521294 0.853377 
-0.162460 0.262866 0.951057 -0.158025 0.265600 0.951044 
-0.162460 0.262866 -0.951057 -0.158025 0.265600 -0.951044 
0.000000 0.525731 -0.850651 -0.000000 0.521294 -0.853377 
0.162460 0.262866 -0.951057 0.158025 0.265600 -0.951044 
0.162460 -0.262866 -0.951057 0.158025 -0.265600 -0.951044 
0.000000 -0.525731 -0.850651 0.000000 -0.521294 -0.853377 
-0.162460 -0.262866 -0.951057 -0.158025 -0.265600 -0.951044 
0.587785 0.425325 0.688191 0.587777 0.429754 0.685441 
0.688191 0.587785 0.425325 0.685441 0.587777 0.429754 
0.425325 0.688191 0.587785 0.429754 0.685441 0.587777 
-0.688191 0.587785 0.425325 -0.685441 0.587777 0.429754 
-0.587785 0.425325 0.688191 -0.587777 0.429754 0.685441 
-0.425325 0.688191 0.587785 -0.429754 0.685441 0.587777 
0.688191 0.587785 -0.425325 0.685441 0.587777 -0.429754 
0.587785 0.425325 -0.688191 0.587777 0.429754 -0.685441 
0.425325 0.688191 -0.587785 0.429754 0.685441 -0.587777 
-0.587785 0.425325 -0.688191 -0.587777 0.429754 -0.685441 
-0.688191 0.587785 -0.425325 -0.685441 0.587777 -0.429754 
-0.425325 0.688191 -0.587785 -0.429754 0.685441 -0.587777 
0.688191 -0.587785 0.425325 0.685441 -0.587777 0.429754 
0.587785 -0.425325 0.688191 0.587777 -0.429754 0.685441 
0.425325 -0.688191 0.587785 0.429754 -0.685441 0.587777 
-0.587785 -0.425325 0.688191 -0.587777 -0.429754 0.685441 
-0.688191 -0.587785 0.425325 -0.685441 -0.587777 0.429754 
-0.425325 -0.688191 0.587785 -0.429754 -0.685441 0.587777 
0.587785 -0.425325 -0.688191 0.587777 -0.429754 -0.685441 
0.688191 -0.587785 -0.425325 0.685441 -0.587777 -0.429754 
0.425325 -0.688191 -0.587785 0.429754 -0.685441 -0.587777 
-0.688191 -0.587785 -0.425325 -0.685441 -0.587777 -0.429754 
-0.587785 -0.425325 -0.688191 -0.587777 -0.429754 -0.685441 
-0.425325 -0.688191 -0.587785 -0.429754 -0.685441 -0.587777 
0.000000 0.961938 -0.273267 0.000000 0.961666 -0.274224 
0.259892 0.862668 -0.433889 0.258982 0.862744 -0.434283 
0.000000 0.961938 0.273267 -0.000000 0.961666 0.274224 
0.259892 0.862668 0.433889 0.258982 0.862744 0.434283 
0.702046 0.693780 0.160622 0.702683 0.693265 0.160060 
0.702046 0.693780 -0.160622 0.702683 0.693265 -0.160060 
-0.259892 0.862668 0.433889 -0.258982 0.862744 0.434283 
-0.259892 0.862668 -0.433889 -0.258982 0.862744 -0.434283 
-0.702046 0.693780 -0.160622 -0.702683 0.693265 -0.160060 
-0.702046 0.693780 0.160622 -0.702683 0.693265 0.160060 
0.000000 -0.961938 0.273267 0.000000 -0.961666 0.274224 
0.259892 -0.862668 0.433889 0.258982 -0.862744 0.434283 
0.000000 -0.961938 -0.273267 -0.000000 -0.961666 -0.274224 
0.259892 -0.862668 -0.433889 0.258982 -0.862744 -0.434283 
0.702046 -0.693780 -0.160622 0.702683 -0.693265 -0.160060 
0.702046 -0.693780 0.160622 0.702683 -0.693265 0.160060 
-0.259892 -0.862668 -0.433889 -0.258982 -0.862744 -0.434283 
-0.259892 -0.862668 0.433889 -0.258982 -0.862744 0.434283 
-0.702046 -0.693780 0.160622 -0.702683 -0.693265 0.160060 
-0.702046 -0.693780 -0.160622 -0.702683 -0.693265 -0.160060 
0.961938 0.273267 0.000000 0.961666 0.274224 -0.000000 
0.862668 0.433889 -0.259892 0.862744 0.434283 -0.258982 
0.961938 -0.273267 0.000000 0.961666 -0.274224 0.000000 
0.862668 -0.433889 -0.259892 0.862744 -0.434282 -0.258982 
0.693780 -0.160622 -0.702046 0.693265 -0.160060 -0.702683 
0.693780 0.160622 -0.702046 0.693265 0.160060 -0.702683 
0.862668 -0.433889 0.259892 0.862744 -0.434283 0.258982 
0.862668 0.433889 0.259892 0.862744 0.434282 0.258982 
0.693780 0.160622 0.702046 0.693265 0.160060 0.702683 
0.693780 -0.160622 0.702046 0.693265 -0.160060 0.702683 
-0.961938 0.273267 0.000000 -0.961666 0.274224 0.000000 
-0.862668 0.433889 0.259892 -0.862744 0.434283 0.258982 
-0.961938 -0.273267 0.000000 -0.961666 -0.274224 -0.000000 
-0.862668 -0.433889 0.259892 -0.862744 -0.434282 0.258982 
-0.693780 -0.160622 0.702046 -0.693265 -0.160060 0.702683 
-0.693780 0.160622 0.702046 -0.693265 0.160060 0.702683 
-0.862668 -0.433889 -0.259892 -0.862744 -0.434283 -0.258982 
-0.862668 0.433889 -0.259892 -0.862744 0.434282 -0.258982 
-0.693780 0.160622 -0.702046 -0.693265 0.160060 -0.702683 
-0.693780 -0.160622 -0.702046 -0.693265 -0.160060 -0.702683 
0.273267 0.000000 0.961938 0.274224 -0.000000 0.961666 
0.433889 -0.259892 0.862668 0.434282 -0.258982 0.862744 
-0.273267 0.000000 0.961938 -0.274224 0.000000 0.961666 
-0.433889 -0.259892 0.862668 -0.434282 -0.258982 0.862744 
-0.160622 -0.702046 0.693780 -0.160060 -0.702683 0.693265 
0.160622 -0.702046 0.693780 0.160060 -0.702683 0.693265 
-0.433889 0.259892 0.862668 -0.434282 0.258982 0.862744 
0.433889 0.259892 0.862668 0.434282 0.258982 0.862744 
0.160622 0.702046 0.693780 0.160060 0.702683 0.693265 
-0.160622 0.702046 0.693780 -0.160060 0.702683 0.693265 
0.273267 0.000000 -0.961938 0.274224 0.000000 -0.961666 
0.433889 0.259892 -0.862668 0.434282 0.258982 -0.862744 
-0.273267 0.000000 -0.961938 -0.274224 -0.000000 -0.961666 
-0.433889 0.259892 -0.862668 -0.434282 0.258982 -0.862744 
-0.160622 0.702046 -0.693780 -0.160060 0.702683 -0.693265 
0.160622 0.702046 -0.693780 0.160060 0.702683 -0.693265 
-0.433889 -0.259892 -0.862668 -0.434282 -0.258982 -0.862744 
0.433889 -0.259892 -0.862668 0.434282 -0.258982 -0.862744 
0.160622 -0.702046 -0.693780 0.160060 -0.702683 -0.693265 
-0.160622 -0.702046 -0.693780 -0.160060 -0.702683 -0.693265 
0.399607 0.912983 0.082324 0.398897 0.913420 0.080902 
0.399607 0.912983 -0.082324 0.398897 0.913420 -0.080902 
0.266405 0.963861 0.000000 0.267991 0.963422 0.000000 
-0.399607 0.912983 -0.082324 -0.398897 0.913420 -0.080902 
-0.399607 0.912983 0.082324 -0.398897 0.913420 0.080902 
-0.266405 0.963861 0.000000 -0.267991 0.963422 0.000000 
0.399607 -0.912983 -0.082324 0.398897 -0.913420 -0.080902 
0.399607 -0.912983 0.082324 0.398897 -0.913420 0.080902 
0.266405 -0.963861 0.000000 0.267991 -0.963422 0.000000 
-0.399607 -0.912983 0.082324 -0.398897 -0.913420 0.080902 
-0.399607 -0.912983 -0.082324 -0.398897 -0.913420 -0.080902 
-0.266405 -0.963861 0.000000 -0.267991 -0.963422 0.000000 
0.912983 -0.082324 -0.399607 0.913420 -0.080902 -0.398897 
0.912983 0.082324 -0.399607 0.913420 0.080902 -0.398897 
0.963861 0.000000 -0.266405 0.963422 0.000000 -0.267991 
0.912983 0.082324 0.399607 0.913420 0.080902 0.398897 
0.912983 -0.082324 0.399607 0.913420 -0.080902 0.398897 
0.963861 0.000000 0.266405 0.963422 0.000000 0.267991 
-0.912983 -0.082324 0.399607 -0.913420 -0.080902 0.398897 
-0.912983 0.082324 0.399607 -0.913420 0.080902 0.398897 
-0.963861 0.000000 0.266405 -0.963422 0.000000 0.267991 
-0.912983 0.082324 -0.399607 -0.913420 0.080902 -0.398897 
-0.912983 -0.082324 -0.399607 -0.913420 -0.080902 -0.398897 
-0.963861 0.000000 -0.266405 -0.963422 0.000000 -0.267991 
-0.082324 -0.399607 0.912983 -0.080902 -0.398897 0.913420 
0.082324 -0.399607 0.912983 0.080902 -0.398897 0.913420 
0.000000 -0.266405 0.963861 0.000000 -0.267991 0.963422 
0.082324 0.399607 0.912983 0.080902 0.398897 0.913420 
-0.082324 0.399607 0.912983 -0.080902 0.398897 0.913420 
0.000000 0.266405 0.963861 0.000000 0.267991 0.963422 
-0.082324 0.399607 -0.912983 -0.080902 0.398897 -0.913420 
0.082324 0.399607 -0.912983 0.080902 0.398897 -0.913420 
0.000000 0.266405 -0.963861 0.000000 0.267991 -0.963422 
0.082324 -0.399607 -0.912983 0.080902 -0.398897 -0.913420 
-0.082324 -0.399607 -0.912983 -0.080902 -0.398897 -0.913420 
0.000000 -0.266405 -0.963861 0.000000 -0.267991 -0.963422 
0.646578 0.513375 0.564254 0.645427 0.514525 0.564525 
0.564254 0.646578 0.513375 0.564525 0.645427 0.514525 
0.513375 0.564254 0.646578 0.514525 0.564525 0.645427 
-0.646578 0.513375 0.564254 -0.645427 0.514525 0.564525 
-0.513375 0.564254 0.646578 -0.514525 0.564525 0.645427 
-0.564254 0.646578 0.513375 -0.564525 0.645427 0.514525 
0.646578 0.513375 -0.564254 0.645427 0.514525 -0.564525 
0.513375 0.564254 -0.646578 0.514525 0.564525 -0.645427 
0.564254 0.646578 -0.513375 0.564525 0.645427 -0.514525 
-0.646578 0.513375 -0.564254 -0.645427 0.514525 -0.564525 
-0.564254 0.646578 -0.513375 -0.564525 0.645427 -0.514525 
-0.513375 0.564254 -0.646578 -0.514525 0.564525 -0.645427 
0.646578 -0.513375 0.564254 0.645427 -0.514525 0.564525 
0.513375 -0.564254 0.646578 0.514525 -0.564525 0.645427 
0.564254 -0.646578 0.513375 0.564525 -0.645427 0.514525 
-0.646578 -0.513375 0.564254 -0.645427 -0.514525 0.564525 
-0.564254 -0.646578 0.513375 -0.564525 -0.645427 0.514525 
-0.513375 -0.564254 0.646578 -0.514525 -0.564525 0.645427 
0.646578 -0.513375 -0.564254 0.645427 -0.514525 -0.564525 
0.564254 -0.646578 -0.513375 0.564525 -0.645427 -0.514525 
0.513375 -0.564254 -0.646578 0.514525 -0.564525 -0.645427 
-0.646578 -0.513375 -0.564254 -0.645427 -0.514525 -0.564525 
-0.513375 -0.564254 -0.646578 -0.514525 -0.564525 -0.645427 
-0.564254 -0.646578 -0.513375 -0.564525 -0.645427 -0.514525 
0.132792 0.966393 -0.220117 0.133212 0.966075 -0.221256 
0.264083 0.916244 -0.301259 0.262872 0.916549 -0.301392 
0.131655 0.924305 -0.358229 0.132357 0.924578 -0.357262 
0.131655 0.924305 0.358229 0.132357 0.924578 0.357262 
0.264083 0.916244 0.301259 0.262872 0.916549 0.301392 
0.132792 0.966393 0.220117 0.133212 0.966075 0.221256 
0.620240 0.780204 0.081142 0.620873 0.779805 0.080135 
0.711282 0.702907 0.000000 0.710418 0.703780 0.000000 
0.620240 0.780204 -0.081142 0.620873 0.779805 -0.080135 
-0.132792 0.966393 0.220117 -0.133212 0.966075 0.221256 
-0.264083 0.916244 0.301259 -0.262872 0.916549 0.301392 
-0.131655 0.924305 0.358229 -0.132357 0.924578 0.357262 
-0.131655 0.924305 -0.358229 -0.132357 0.924578 -0.357262 
-0.264083 0.916244 -0.301259 -0.262872 0.916549 -0.301392 
-0.132792 0.966393 -0.220117 -0.133212 0.966075 -0.221256 
-0.620240 0.780204 -0.081142 -0.620873 0.779805 -0.080135 
-0.711282 0.702907 0.000000 -0.710418 0.703780 0.000000 
-0.620240 0.780204 0.081142 -0.620873 0.779805 0.080135 
0.132792 -0.966393 0.220117 0.133212 -0.966075 0.221256 
0.264083 -0.916244 0.301259 0.262872 -0.916549 0.301392 
0.131655 -0.924305 0.358229 0.132357 -0.924578 0.357262 
0.131655 -0.924305 -0.358229 0.132357 -0.924578 -0.357262 
0.264083 -0.916244 -0.301259 0.262872 -0.916549 -0.301392 
0.132792 -0.966393 -0.220117 0.133212 -0.966075 -0.221256 
0.620240 -0.780204 -0.081142 0.620873 -0.779805 -0.080135 
0.711282 -0.702907 0.000000 0.710418 -0.703780 0.000000 
0.620240 -0.780204 0.081142 0.620873 -0.779805 0.080135 
-0.132792 -0.966393 -0.220117 -0.133212 -0.966075 -0.221256 
-0.264083 -0.916244 -0.301259 -0.262872 -0.916549 -0.301392 
-0.131655 -0.924305 -0.358229 -0.132357 -0.924578 -0.357262 
-0.131655 -0.924305 0.358229 -0.132357 -0.924578 0.357262 
-0.264083 -0.916244 0.301259 -0.262872 -0.916549 0.301392 
-0.132792 -0.966393 0.220117 -0.133212 -0.966075 0.221256 
-0.620240 -0.780204 0.081142 -0.620873 -0.779805 0.080135 
-0.711282 -0.702907 0.000000 -0.710418 -0.703780 0.000000 
-0.620240 -0.780204 -0.081142 -0.620873 -0.779805 -0.080135 
0.966393 0.220117 -0.132792 0.966075 0.221256 -0.133212 
0.916244 0.301259 -0.264083 0.916549 0.301392 -0.262872 
0.924305 0.358229 -0.131655 0.924578 0.357262 -0.132357 
0.924305 -0.358229 -0.131655 0.924578 -0.357262 -0.132357 
0.916244 -0.301259 -0.264083 0.916549 -0.301392 -0.262872 
0.966393 -0.220117 -0.132792 0.966075 -0.221256 -0.133212 
0.780204 -0.081142 -0.620240 0.779805 -0.080135 -0.620873 
0.702907 0.000000 -0.711282 0.703780 0.000000 -0.710418 
0.780204 0.081142 -0.620240 0.779805 0.080135 -0.620873 
0.966393 -0.220117 0.132792 0.966075 -0.221256 0.133212 
0.916244 -0.301259 0.264083 0.916549 -0.301392 0.262872 
0.924305 -0.358229 0.131655 0.924578 -0.357262 0.132357 
0.924305 0.358229 0.131655 0.924578 0.357262 0.132357 
0.916244 0.301259 0.264083 0.916549 0.301392 0.262872 
0.966393 0.220117 0.132792 0.966075 0.221256 0.133212 
0.780204 0.081142 0.620240 0.779805 0.080135 0.620873 
0.702907 0.000000 0.711282 0.703780 0.000000 0.710418 
0.780204 -0.081142 0.620240 0.779805 -0.080135 0.620873 
-0.966393 0.220117 0.132792 -0.966075 0.221256 0.133212 
-0.916244 0.301259 0.264083 -0.916549 0.301392 0.262872 
-0.924305 0.358229 0.131655 -0.924578 0.357262 0.132357 
-0.924305 -0.358229 0.131655 -0.924578 -0.357262 0.132357 
-0.916244 -0.301259 0.264083 -0.916549 -0.301392 0.262872 
-0.966393 -0.220117 0.132792 -0.966075 -0.221256 0.133212 
-0.780204 -0.081142 0.620240 -0.779805 -0.080135 0.620873 
-0.702907 0.000000 0.711282 -0.703780 0.000000 0.710418 
-0.780204 0.081142 0.620240 -0.779805 0.080135 0.620873 
-0.966393 -0.220117 -0.132792 -0.966075 -0.221256 -0.133212 
-0.916244 -0.301259 -0.264083 -0.916549 -0.301392 -0.262872 
-0.924305 -0.358229 -0.131655 -0.924578 -0.357262 -0.132357 
-0.924305 0.358229 -0.131655 -0.924578 0.357262 -0.132357 
-0.916244 0.301259 -0.264083 -0.916549 0.301392 -0.262872 
-0.966393 0.220117 -0.132792 -0.966075 0.221256 -0.133212 
-0.780204 0.081142 -0.620240 -0.779805 0.080135 -0.620873 
-0.702907 0.000000 -0.711282 -0.703780 0.000000 -0.710418 
-0.780204 -0.081142 -0.620240 -0.779805 -0.080135 -0.620873 
0.220117 -0.132792 0.966393 0.221256 -0.133212 0.966075 
0.301259 -0.264083 0.916244 0.301392 -0.262872 0.916549 
0.358229 -0.131655 0.924305 0.357262 -0.132357 0.924578 
-0.358229 -0.131655 0.924305 -0.357262 -0.132357 0.924578 
-0.301259 -0.264083 0.916244 -0.301392 -0.262872 0.916549 
-0.220117 -0.132792 0.966393 -0.221256 -0.133212 0.966075 
-0.081142 -0.620240 0.780204 -0.080135 -0.620873 0.779805 
0.000000 -0.711282 0.702907 0.000000 -0.710418 0.703780 
0.081142 -0.620240 0.780204 0.080135 -0.620873 0.779805 
-0.220117 0.132792 0.966393 -0.221256 0.133212 0.966075 
-0.301259 0.264083 0.916244 -0.301392 0.262872 0.916549 
-0.358229 0.131655 0.924305 -0.357262 0.132357 0.924578 
0.358229 0.131655 0.924305 0.357262 0.132357 0.924578 
0.301259 0.264083 0.916244 0.301392 0.262872 0.916549 
0.220117 0.132792 0.966393 0.221256 0.133212 0.966075 
0.081142 0.620240 0.780204 0.080135 0.620873 0.779805 
0.000000 0.711282 0.702907 0.000000 0.710418 0.703780 
-0.081142 0.620240 0.780204 -0.080135 0.620873 0.779805 
0.220117 0.132792 -0.966393 0.221256 0.133212 -0.966075 
0.301259 0.264083 -0.916244 0.301392 0.262872 -0.916549 
0.358229 0.131655 -0.924305 0.357262 0.132357 -0.924578 
-0.358229 0.131655 -0.924305 -0.357262 0.132357 -0.924578 
-0.301259 0.264083 -0.916244 -0.301392 0.262872 -0.916549 
-0.220117 0.132792 -0.966393 -0.221256 0.133212 -0.966075 
-0.081142 0.620240 -0.780204 -0.080135 0.620873 -0.779805 
0.000000 0.711282 -0.702907 0.000000 0.710418 -0.703780 
0.081142 0.620240 -0.780204 0.080135 0.620873 -0.779805 
-0.220117 -0.132792 -0.966393 -0.221256 -0.133212 -0.966075 
-0.301259 -0.264083 -0.916244 -0.301392 -0.262872 -0.916549 
-0.358229 -0.131655 -0.924305 -0.357262 -0.132357 -0.924578 
0.358229 -0.131655 -0.924305 0.357262 -0.132357 -0.924578 
0.301259 -0.264083 -0.916244 0.301392 -0.262872 -0.916549 
0.220117 -0.132792 -0.966393 0.221256 -0.133212 -0.966075 
0.081142 -0.620240 -0.780204 0.080135 -0.620873 -0.779805 
0.000000 -0.711282 -0.702907 0.000000 -0.710418 -0.703780 
-0.081142 -0.620240 -0.780204 -0.080135 -0.620873 -0.779805 
0.296005 0.702310 0.647412 0.295676 0.703202 0.646593 
0.346153 0.783452 0.516122 0.345203 0.783336 0.516934 
0.213023 0.792649 0.571252 0.214159 0.792220 0.571422 
0.571252 0.213023 0.792649 0.571422 0.214159 0.792220 
0.647412 0.296005 0.702310 0.646593 0.295676 0.703202 
0.516122 0.346153 0.783452 0.516933 0.345202 0.783336 
0.783452 0.516122 0.346153 0.783336 0.516933 0.345202 
0.792649 0.571252 0.213023 0.792220 0.571422 0.214159 
0.702310 0.647412 0.296005 0.703202 0.646593 0.295676 
-0.346153 0.783452 0.516122 -0.345203 0.783336 0.516934 
-0.296005 0.702310 0.647412 -0.295676 0.703202 0.646593 
-0.213023 0.792649 0.571252 -0.214159 0.792220 0.571422 
-0.792649 0.571252 0.213023 -0.792220 0.571422 0.214159 
-0.783452 0.516122 0.346153 -0.783336 0.516934 0.345203 
-0.702310 0.647412 0.296005 -0.703202 0.646593 0.295676 
-0.647412 0.296005 0.702310 -0.646593 0.295676 0.703202 
-0.571252 0.213023 0.792649 -0.571422 0.214159 0.792220 
-0.516122 0.346153 0.783452 -0.516933 0.345202 0.783336 
0.346153 0.783452 -0.516122 0.345203 0.783336 -0.516934 
0.296005 0.702310 -0.647412 0.295676 0.703202 -0.646593 
0.213023 0.792649 -0.571252 0.214159 0.792220 -0.571422 
0.792649 0.571252 -0.213023 0.792220 0.571422 -0.214159 
0.783452 0.516122 -0.346153 0.783336 0.516934 -0.345203 
0.702310 0.647412 -0.296005 0.703202 0.646593 -0.295676 
0.647412 0.296005 -0.702310 0.646593 0.295676 -0.703202 
0.571252 0.213023 -0.792649 0.571422 0.214159 -0.792220 
0.516122 0.346153 -0.783452 0.516933 0.345202 -0.783336 
-0.296005 0.702310 -0.647412 -0.295676 0.703202 -0.646593 
-0.346153 0.783452 -0.516122 -0.345203 0.783336 -0.516934 
-0.213023 0.792649 -0.571252 -0.214159 0.792220 -0.571422 
-0.571252 0.213023 -0.792649 -0.571422 0.214159 -0.792220 
-0.647412 0.296005 -0.702310 -0.646593 0.295676 -0.703202 
-0.516122 0.346153 -0.783452 -0.516933 0.345202 -0.783336 
-0.783452 0.516122 -0.346153 -0.783336 0.516933 -0.345202 
-0.792649 0.571252 -0.213023 -0.792220 0.571422 -0.214159 
-0.702310 0.647412 -0.296005 -0.703202 0.646593 -0.295676 
0.346153 -0.783452 0.516122 0.345203 -0.783336 0.516934 
0.296005 -0.702310 0.647412 0.295676 -0.703202 0.646593 
0.213023 -0.792649 0.571252 0.214159 -0.792220 0.571422 
0.792649 -0.571252 0.213023 0.792220 -0.571422 0.214159 
0.783452 -0.516122 0.346153 0.783336 -0.516934 0.345203 
0.702310 -0.647412 0.296005 0.703202 -0.646593 0.295676 
0.647412 -0.296005 0.702310 0.646593 -0.295676 0.703202 
0.571252 -0.213023 0.792649 0.571422 -0.214159 0.792220 
0.516122 -0.346153 0.783452 0.516933 -0.345202 0.783336 
-0.296005 -0.702310 0.647412 -0.295676 -0.703202 0.646593 
-0.346153 -0.783452 0.516122 -0.345203 -0.783336 0.516934 
-0.213023 -0.792649 0.571252 -0.214159 -0.792220 0.571422 
-0.571252 -0.213023 0.792649 -0.571422 -0.214159 0.792220 
-0.647412 -0.296005 0.702310 -0.646593 -0.295676 0.703202 
-0.516122 -0.346153 0.783452 -0.516933 -0.345202 0.783336 
-0.783452 -0.516122 0.346153 -0.783336 -0.516933 0.345202 
-0.792649 -0.571252 0.213023 -0.792220 -0.571422 0.214159 
-0.702310 -0.647412 0.296005 -0.703202 -0.646593 0.295676 
0.296005 -0.702310 -0.647412 0.295676 -0.703202 -0.646593 
0.346153 -0.783452 -0.516122 0.345203 -0.783336 -0.516934 
0.213023 -0.792649 -0.571252 0.214159 -0.792220 -0.571422 
0.571252 -0.213023 -0.792649 0.571422 -0.214159 -0.792220 
0.647412 -0.296005 -0.702310 0.646593 -0.295676 -0.703202 
0.516122 -0.346153 -0.783452 0.516933 -0.345202 -0.783336 
0.783452 -0.516122 -0.346153 0.783336 -0.516933 -0.345202 
0.792649 -0.571252 -0.213023 0.792220 -0.571422 -0.214159 
0.702310 -0.647412 -0.296005 0.703202 -0.646593 -0.295676 
-0.346153 -0.783452 -0.516122 -0.345203 -0.783336 -0.516934 
-0.296005 -0.702310 -0.647412 -0.295676 -0.703202 -0.646593 
-0.213023 -0.792649 -0.571252 -0.214159 -0.792220 -0.571422 
-0.792649 -0.571252 -0.213023 -0.792220 -0.571422 -0.214159 
-0.783452 -0.516122 -0.346153 -0.783336 -0.516934 -0.345203 
-0.702310 -0.647412 -0.296005 -0.703202 -0.646593 -0.295676 
-0.647412 -0.296005 -0.702310 -0.646593 -0.295676 -0.703202 
-0.571252 -0.213023 -0.792649 -0.571422 -0.214159 -0.792220 
-0.516122 -0.346153 -0.783452 -0.516933 -0.345202 -0.783336 
0.133071 0.987688 0.082242 0.135484 0.987731 0.077667 
0.133071 0.987688 -0.082242 0.135484 0.987731 -0.077667 
0.386187 0.891007 0.238677 0.389163 0.890833 0.234453 
0.519258 0.840178 0.156434 0.514836 0.842831 0.156782 
0.519258 0.840178 -0.156434 0.514836 0.842831 -0.156782 
0.386187 0.891007 -0.238677 0.389163 0.890833 -0.234453 
-0.133071 0.987688 -0.082242 -0.135484 0.987731 -0.077667 
-0.133071 0.987688 0.082242 -0.135484 0.987731 0.077667 
-0.386187 0.891007 -0.238677 -0.389163 0.890833 -0.234453 
-0.519258 0.840178 -0.156434 -0.514836 0.842831 -0.156782 
-0.519258 0.840178 0.156434 -0.514836 0.842831 0.156782 
-0.386187 0.891007 0.238677 -0.389163 0.890833 0.234453 
0.133071 -0.987688 -0.082242 0.135484 -0.987731 -0.077667 
0.133071 -0.987688 0.082242 0.135484 -0.987731 0.077667 
0.386187 -0.891007 -0.238677 0.389163 -0.890833 -0.234453 
0.519258 -0.840178 -0.156434 0.514836 -0.842831 -0.156782 
0.519258 -0.840178 0.156434 0.514836 -0.842831 0.156782 
0.386187 -0.891007 0.238677 0.389163 -0.890833 0.234453 
-0.133071 -0.987688 0.082242 -0.135484 -0.987731 0.077667 
-0.133071 -0.987688 -0.082242 -0.135484 -0.987731 -0.077667 
-0.386187 -0.891007 0.238677 -0.389163 -0.890833 0.234453 
-0.519258 -0.840178 0.156434 -0.514836 -0.842831 0.156782 
-0.519258 -0.840178 -0.156434 -0.514836 -0.842831 -0.156782 
-0.386187 -0.891007 -0.238677 -0.389163 -0.890833 -0.234453 
0.987688 -0.082242 -0.133071 0.987731 -0.077667 -0.135484 
0.987688 0.082242 -0.133071 0.987731 0.077667 -0.135484 
0.891007 -0.238677 -0.386187 0.890833 -0.234453 -0.389163 
0.840178 -0.156434 -0.519258 0.842831 -0.156782 -0.514836 
0.840178 0.156434 -0.519258 0.842831 0.156782 -0.514836 
0.891007 0.238677 -0.386187 0.890833 0.234453 -0.389163 
0.987688 0.082242 0.133071 0.987731 0.077667 0.135484 
0.987688 -0.082242 0.133071 0.987731 -0.077667 0.135484 
0.891007 0.238677 0.386187 0.890833 0.234453 0.389163 
0.840178 0.156434 0.519258 0.842831 0.156782 0.514836 
0.840178 -0.156434 0.519258 0.842831 -0.156782 0.514836 
0.891007 -0.238677 0.386187 0.890833 -0.234453 0.389163 
-0.987688 -0.082242 0.133071 -0.987731 -0.077667 0.135484 
-0.987688 0.082242 0.133071 -0.987731 0.077667 0.135484 
-0.891007 -0.238677 0.386187 -0.890833 -0.234453 0.389163 
-0.840178 -0.156434 0.519258 -0.842831 -0.156782 0.514836 
-0.840178 0.156434 0.519258 -0.842831 0.156782 0.514836 
-0.891007 0.238677 0.386187 -0.890833 0.234453 0.389163 
-0.987688 0.082242 -0.133071 -0.987731 0.077667 -0.135484 
-0.987688 -0.082242 -0.133071 -0.987731 -0.077667 -0.135484 
-0.891007 0.238677 -0.386187 -0.890833 0.234453 -0.389163 
-0.840178 0.156434 -0.519258 -0.842831 0.156782 -0.514836 
-0.840178 -0.156434 -0.519258 -0.842831 -0.156782 -0.514836 
-0.891007 -0.238677 -0.386187 -0.890833 -0.234453 -0.389163 
-0.082242 -0.133071 0.987688 -0.077667 -0.135484 0.987731 
0.082242 -0.133071 0.987688 0.077667 -0.135484 0.987731 
-0.238677 -0.386187 0.891007 -0.234453 -0.389163 0.890833 
-0.156434 -0.519258 0.840178 -0.156782 -0.514836 0.842831 
0.156434 -0.519258 0.840178 0.156782 -0.514836 0.842831 
0.238677 -0.386187 0.891007 0.234453 -0.389163 0.890833 
0.082242 0.133071 0.987688 0.077667 0.135484 0.987731 
-0.082242 0.133071 0.987688 -0.077667 0.135484 0.987731 
0.238677 0.386187 0.891007 0.234453 0.389163 0.890833 
0.156434 0.519258 0.840178 0.156782 0.514836 0.842831 
-0.156434 0.519258 0.840178 -0.156782 0.514836 0.842831 
-0.238677 0.386187 0.891007 -0.234453 0.389163 0.890833 
-0.082242 0.133071 -0.987688 -0.077667 0.135484 -0.987731 
0.082242 0.133071 -0.987688 0.077667 0.135484 -0.987731 
-0.238677 0.386187 -0.891007 -0.234453 0.389163 -0.890833 
-0.156434 0.519258 -0.840178 -0.156782 0.514836 -0.842831 
0.156434 0.519258 -0.840178 0.156782 0.514836 -0.842831 
0.238677 0.386187 -0.891007 0.234453 0.389163 -0.890833 
0.082242 -0.133071 -0.987688 0.077667 -0.135484 -0.987731 
-0.082242 -0.133071 -0.987688 -0.077667 -0.135484 -0.987731 
0.238677 -0.386187 -0.891007 0.234453 -0.389163 -0.890833 
0.156434 -0.519258 -0.840178 0.156782 -0.514836 -0.842831 
-0.156434 -0.519258 -0.840178 -0.156782 -0.514836 -0.842831 
-0.238677 -0.386187 -0.891007 -0.234453 -0.389163 -0.890833 
0.453991 0.468430 0.757935 0.453670 0.472897 0.755349 
0.371748 0.601501 0.707107 0.376000 0.598568 0.707347 
0.707107 0.371748 0.601501 0.707347 0.376000 0.598568 
0.757935 0.453991 0.468430 0.755349 0.453670 0.472897 
0.601501 0.707107 0.371748 0.598568 0.707347 0.376000 
0.468430 0.757935 0.453991 0.472897 0.755349 0.453670 
-0.601501 0.707107 0.371748 -0.598568 0.707347 0.376000 
-0.468430 0.757935 0.453991 -0.472897 0.755349 0.453670 
-0.757935 0.453991 0.468430 -0.755349 0.453670 0.472897 
-0.707107 0.371748 0.601501 -0.707347 0.376000 0.598568 
-0.453991 0.468430 0.757935 -0.453670 0.472897 0.755349 
-0.371748 0.601501 0.707107 -0.376000 0.598568 0.707347 
0.601501 0.707107 -0.371748 0.598568 0.707347 -0.376000 
0.468430 0.757935 -0.453991 0.472897 0.755349 -0.453670 
0.757935 0.453991 -0.468430 0.755349 0.453670 -0.472897 
0.707107 0.371748 -0.601501 0.707347 0.376000 -0.598568 
0.453991 0.468430 -0.757935 0.453670 0.472897 -0.755349 
0.371748 0.601501 -0.707107 0.376000 0.598568 -0.707347 
-0.453991 0.468430 -0.757935 -0.453670 0.472897 -0.755349 
-0.371748 0.601501 -0.707107 -0.376000 0.598568 -0.707347 
-0.707107 0.371748 -0.601501 -0.707347 0.376000 -0.598568 
-0.757935 0.453991 -0.468430 -0.755349 0.453670 -0.472897 
-0.601501 0.707107 -0.371748 -0.598568 0.707347 -0.376000 
-0.468430 0.757935 -0.453991 -0.472897 0.755349 -0.453670 
0.601501 -0.707107 0.371748 0.598568 -0.707347 0.376000 
0.468430 -0.757935 0.453991 0.472897 -0.755349 0.453670 
0.757935 -0.453991 0.468430 0.755349 -0.453670 0.472897 
0.707107 -0.371748 0.601501 0.707347 -0.376000 0.598568 
0.453991 -0.468430 0.757935 0.453670 -0.472897 0.755349 
0.371748 -0.601501 0.707107 0.376000 -0.598568 0.707347 
-0.453991 -0.468430 0.757935 -0.453670 -0.472897 0.755349 
-0.371748 -0.601501 0.707107 -0.376000 -0.598568 0.707347 
-0.707107 -0.371748 0.601501 -0.707347 -0.376000 0.598568 
-0.757935 -0.453991 0.468430 -0.755349 -0.453670 0.472897 
-0.601501 -0.707107 0.371748 -0.598568 -0.707347 0.376000 
-0.468430 -0.757935 0.453991 -0.472897 -0.755349 0.453670 
0.453991 -0.468430 -0.757935 0.453670 -0.472897 -0.755349 
0.371748 -0.601501 -0.707107 0.376000 -0.598568 -0.707347 
0.707107 -0.371748 -0.601501 0.707347 -0.376000 -0.598568 
0.757935 -0.453991 -0.468430 0.755349 -0.453670 -0.472897 
0.601501 -0.707107 -0.371748 0.598568 -0.707347 -0.376000 
0.468430 -0.757935 -0.453991 0.472897 -0.755349 -0.453670 
-0.601501 -0.707107 -0.371748 -0.598568 -0.707347 -0.376000 
-0.468430 -0.757935 -0.453991 -0.472897 -0.755349 -0.453670 
-0.757935 -0.453991 -0.468430 -0.755349 -0.453670 -0.472897 
-0.707107 -0.371748 -0.601501 -0.707347 -0.376000 -0.598568 
-0.453991 -0.468430 -0.757935 -0.453670 -0.472897 -0.755349 
-0.371748 -0.601501 -0.707107 -0.376000 -0.598568 -0.707347 
0.000000 0.915043 -0.403355 0.000000 0.914626 -0.404300 
0.131200 0.864929 -0.484442 0.130228 0.864884 -0.484785 
0.000000 0.990439 -0.137952 0.000000 0.990346 -0.138616 
0.383614 0.843911 -0.375039 0.383030 0.844042 -0.375343 
0.000000 0.990439 0.137952 0.000000 0.990346 0.138616 
0.000000 0.915043 0.403355 -0.000000 0.914626 0.404300 
0.131200 0.864929 0.484442 0.130228 0.864884 0.484785 
0.383614 0.843911 0.375039 0.383030 0.844042 0.375343 
0.606825 0.758652 -0.237086 0.607317 0.758372 -0.236723 
0.606825 0.758652 0.237086 0.607317 0.758372 0.236723 
0.783843 0.615642 0.081086 0.784398 0.615014 0.080487 
0.783843 0.615642 -0.081086 0.784398 0.615014 -0.080487 
-0.131200 0.864929 0.484442 -0.130228 0.864884 0.484785 
-0.383614 0.843911 0.375039 -0.383030 0.844042 0.375343 
-0.131200 0.864929 -0.484442 -0.130228 0.864884 -0.484785 
-0.383614 0.843911 -0.375039 -0.383030 0.844042 -0.375343 
-0.606825 0.758652 0.237086 -0.607317 0.758372 0.236723 
-0.606825 0.758652 -0.237086 -0.607317 0.758372 -0.236723 
-0.783843 0.615642 -0.081086 -0.784398 0.615014 -0.080487 
-0.783843 0.615642 0.081086 -0.784398 0.615014 0.080487 
0.000000 -0.915043 0.403355 0.000000 -0.914626 0.404300 
0.131200 -0.864929 0.484442 0.130228 -0.864884 0.484785 
0.000000 -0.990439 0.137952 0.000000 -0.990346 0.138616 
0.383614 -0.843911 0.375039 0.383030 -0.844042 0.375343 
0.000000 -0.990439 -0.137952 0.000000 -0.990346 -0.138616 
0.000000 -0.915043 -0.403355 -0.000000 -0.914626 -0.404300 
0.131200 -0.864929 -0.484442 0.130228 -0.864884 -0.484785 
0.383614 -0.843911 -0.375039 0.383030 -0.844042 -0.375343 
0.606825 -0.758652 0.237086 0.607317 -0.758372 0.236723 
0.606825 -0.758652 -0.237086 0.607317 -0.758372 -0.236723 
0.783843 -0.615642 -0.081086 0.784398 -0.615014 -0.080487 
0.783843 -0.615642 0.081086 0.784398 -0.615014 0.080487 
-0.131200 -0.864929 -0.484442 -0.130228 -0.864884 -0.484785 
-0.383614 -0.843911 -0.375039 -0.383030 -0.844042 -0.375343 
-0.131200 -0.864929 0.484442 -0.130228 -0.864884 0.484785 
-0.383614 -0.843911 0.375039 -0.383030 -0.844042 0.375343 
-0.606825 -0.758652 -0.237086 -0.607317 -0.758372 -0.236723 
-0.606825 -0.758652 0.237086 -0.607317 -0.758372 0.236723 
-0.783843 -0.615642 0.081086 -0.784398 -0.615014 0.080487 
-0.783843 -0.615642 -0.081086 -0.784398 -0.615014 -0.080487 
0.915043 0.403355 0.000000 0.914626 0.404300 -0.000000 
0.864929 0.484442 -0.131200 0.864884 0.484785 -0.130228 
0.990439 0.137952 0.000000 0.990346 0.138616 -0.000000 
0.843911 0.375039 -0.383614 0.844042 0.375343 -0.383029 
0.990439 -0.137952 0.000000 0.990346 -0.138616 -0.000000 
0.915043 -0.403355 0.000000 0.914626 -0.404300 0.000000 
0.864929 -0.484442 -0.131200 0.864884 -0.484785 -0.130228 
0.843911 -0.375039 -0.383614 0.844042 -0.375343 -0.383030 
0.758652 0.237086 -0.606825 0.758372 0.236723 -0.607317 
0.758652 -0.237086 -0.606825 0.758372 -0.236723 -0.607317 
0.615642 -0.081086 -0.783843 0.615014 -0.080487 -0.784398 
0.615642 0.081086 -0.783843 0.615014 0.080487 -0.784398 
0.864929 -0.484442 0.131200 0.864884 -0.484785 0.130228 
0.843911 -0.375039 0.383614 0.844042 -0.375343 0.383029 
0.864929 0.484442 0.131200 0.864884 0.484785 0.130228 
0.843911 0.375039 0.383614 0.844042 0.375343 0.383030 
0.758652 -0.237086 0.606825 0.758372 -0.236723 0.607317 
0.758652 0.237086 0.606825 0.758372 0.236723 0.607317 
0.615642 0.081086 0.783843 0.615014 0.080487 0.784398 
0.615642 -0.081086 0.783843 0.615014 -0.080487 0.784398 
-0.915043 0.403355 0.000000 -0.914626 0.404300 0.000000 
-0.864929 0.484442 0.131200 -0.864884 0.484785 0.130228 
-0.990439 0.137952 0.000000 -0.990346 0.138616 0.000000 
-0.843911 0.375039 0.383614 -0.844042 0.375343 0.383029 
-0.990439 -0.137952 0.000000 -0.990346 -0.138616 0.000000 
-0.915043 -0.403355 0.000000 -0.914626 -0.404300 -0.000000 
-0.864929 -0.484442 0.131200 -0.864884 -0.484785 0.130228 
-0.843911 -0.375039 0.383614 -0.844042 -0.375343 0.383030 
-0.758652 0.237086 0.606825 -0.758372 0.236723 0.607317 
-0.758652 -0.237086 0.606825 -0.758372 -0.236723 0.607317 
-0.615642 -0.081086 0.783843 -0.615014 -0.080487 0.784398 
-0.615642 0.081086 0.783843 -0.615014 0.080487 0.784398 
-0.864929 -0.484442 -0.131200 -0.864884 -0.484785 -0.130228 
-0.843911 -0.375039 -0.383614 -0.844042 -0.375343 -0.383029 
-0.864929 0.484442 -0.131200 -0.864884 0.484785 -0.130228 
-0.843911 0.375039 -0.383614 -0.844042 0.375343 -0.383030 
-0.758652 -0.237086 -0.606825 -0.758372 -0.236723 -0.607317 
-0.758652 0.237086 -0.606825 -0.758372 0.236723 -0.607317 
-0.615642 0.081086 -0.783843 -0.615014 0.080487 -0.784398 
-0.615642 -0.081086 -0.783843 -0.615014 -0.080487 -0.784398 
0.403355 0.000000 0.915043 0.404300 -0.000000 0.914626 
0.484442 -0.131200 0.864929 0.484785 -0.130228 0.864884 
0.137952 0.000000 0.990439 0.138616 0.000000 0.990346 
0.375039 -0.383614 0.843911 0.375343 -0.383029 0.844042 
-0.137952 0.000000 0.990439 -0.138616 0.000000 0.990346 
-0.403355 0.000000 0.915043 -0.404300 0.000000 0.914626 
-0.484442 -0.131200 0.864929 -0.484785 -0.130228 0.864884 
-0.375039 -0.383614 0.843911 -0.375343 -0.383030 0.844042 
0.237086 -0.606825 0.758652 0.236723 -0.607317 0.758372 
-0.237086 -0.606825 0.758652 -0.236723 -0.607317 0.758372 
-0.081086 -0.783843 0.615642 -0.080487 -0.784398 0.615014 
0.081086 -0.783843 0.615642 0.080487 -0.784398 0.615014 
-0.484442 0.131200 0.864929 -0.484785 0.130228 0.864884 
-0.375039 0.383614 0.843911 -0.375343 0.383029 0.844042 
0.484442 0.131200 0.864929 0.484785 0.130228 0.864884 
0.375039 0.383614 0.843911 0.375343 0.383030 0.844042 
-0.237086 0.606825 0.758652 -0.236723 0.607317 0.758372 
0.237086 0.606825 0.758652 0.236723 0.607317 0.758372 
0.081086 0.783843 0.615642 0.080487 0.784398 0.615014 
-0.081086 0.783843 0.615642 -0.080487 0.784398 0.615014 
0.403355 0.000000 -0.915043 0.404300 0.000000 -0.914626 
0.484442 0.131200 -0.864929 0.484785 0.130228 -0.864884 
0.137952 0.000000 -0.990439 0.138616 -0.000000 -0.990346 
0.375039 0.383614 -0.843911 0.375343 0.383029 -0.844042 
-0.137952 0.000000 -0.990439 -0.138616 -0.000000 -0.990346 
-0.403355 0.000000 -0.915043 -0.404300 -0.000000 -0.914626 
-0.484442 0.131200 -0.864929 -0.484785 0.130228 -0.864884 
-0.375039 0.383614 -0.843911 -0.375343 0.383030 -0.844042 
0.237086 0.606825 -0.758652 0.236723 0.607317 -0.758372 
-0.237086 0.606825 -0.758652 -0.236723 0.607317 -0.758372 
-0.081086 0.783843 -0.615642 -0.080487 0.784398 -0.615014 
0.081086 0.783843 -0.615642 0.080487 0.784398 -0.615014 
-0.484442 -0.131200 -0.864929 -0.484785 -0.130228 -0.864884 
-0.375039 -0.383614 -0.843911 -0.375343 -0.383029 -0.844042 
0.484442 -0.131200 -0.864929 0.484785 -0.130228 -0.864884 
0.375039 -0.383614 -0.843911 0.375343 -0.383030 -0.844042 
-0.237086 -0.606825 -0.758652 -0.236723 -0.607317 -0.758372 
0.237086 -0.606825 -0.758652 0.236723 -0.607317 -0.758372 
0.081086 -0.783843 -0.615642 0.080487 -0.784398 -0.615014 
-0.081086 -0.783843 -0.615642 -0.080487 -0.784398 -0.615014 
